ply
format ascii 1.0
element vertex 2035
property float x
property float y
property float z
end_header
-69.235 -18.439 156.000
-68.845 -18.439 156.000
-68.455 -18.439 156.000
-67.628 -18.321 155.000
-67.240 -18.321 155.000
-66.852 -18.321 155.000
-66.464 -18.321 155.000
-66.077 -18.321 155.000
-65.689 -18.321 155.000
-65.301 -18.321 155.000
-64.913 -18.321 155.000
-64.525 -18.321 155.000
-64.137 -18.321 155.000
-63.750 -18.321 155.000
-63.362 -18.321 155.000
-62.974 -18.321 155.000
-63.394 -18.557 157.000
-63.001 -18.557 157.000
-62.608 -18.557 157.000
-62.215 -18.557 157.000
-61.822 -18.557 157.000
-61.429 -18.557 157.000
-61.425 -18.676 158.000
-61.030 -18.676 158.000
-60.635 -18.676 158.000
-60.239 -18.676 158.000
-60.223 -18.794 159.000
-59.825 -18.794 159.000
-60.174 -19.030 161.000
-59.772 -19.030 161.000
-59.369 -19.030 161.000
-58.966 -19.030 161.000
-58.563 -19.030 161.000
-58.160 -19.030 161.000
-58.116 -19.148 162.000
-57.711 -19.148 162.000
-57.305 -19.148 162.000
-56.900 -19.148 162.000
-56.495 -19.148 162.000
-56.089 -19.148 162.000
-56.028 -19.267 163.000
-55.620 -19.267 163.000
-55.212 -19.267 163.000
-54.804 -19.267 163.000
-54.730 -19.385 164.000
-54.320 -19.385 164.000
-53.909 -19.385 164.000
-53.499 -19.385 164.000
-53.088 -19.385 164.000
-52.678 -19.385 164.000
-52.268 -19.385 164.000
-51.857 -19.385 164.000
-51.447 -19.385 164.000
-51.037 -19.385 164.000
-50.935 -19.503 165.000
-50.522 -19.503 165.000
-50.109 -19.503 165.000
-49.696 -19.503 165.000
-49.284 -19.503 165.000
-48.871 -19.503 165.000
-48.458 -19.503 165.000
-48.045 -19.503 165.000
-47.921 -19.621 166.000
-47.505 -19.621 166.000
-47.090 -19.621 166.000
-46.675 -19.621 166.000
-46.538 -19.739 167.000
-46.120 -19.739 167.000
-45.702 -19.739 167.000
-45.284 -19.739 167.000
-44.867 -19.739 167.000
-44.449 -19.739 167.000
-44.031 -19.739 167.000
-43.613 -19.739 167.000
-43.195 -19.739 167.000
-42.777 -19.739 167.000
-42.359 -19.739 167.000
-41.941 -19.739 167.000
-41.772 -19.858 168.000
-41.352 -19.858 168.000
-40.931 -19.858 168.000
-40.511 -19.858 168.000
-40.568 -20.094 170.000
-40.143 -20.094 170.000
-39.951 -20.212 171.000
-39.523 -20.212 171.000
-39.095 -20.212 171.000
-38.667 -20.212 171.000
-38.239 -20.212 171.000
-37.812 -20.212 171.000
-37.602 -20.330 172.000
-37.172 -20.330 172.000
-36.742 -20.330 172.000
-36.100 -20.212 171.000
-35.672 -20.212 171.000
-35.450 -20.330 172.000
-35.020 -20.330 172.000
-34.590 -20.330 172.000
-34.159 -20.330 172.000
-33.729 -20.330 172.000
-33.298 -20.330 172.000
-33.441 -20.685 175.000
-33.003 -20.685 175.000
-32.566 -20.685 175.000
-32.128 -20.685 175.000
-31.871 -20.803 176.000
-31.431 -20.803 176.000
-30.990 -20.803 176.000
-30.550 -20.803 176.000
-30.280 -20.921 177.000
-29.838 -20.921 177.000
-29.395 -20.921 177.000
-28.952 -20.921 177.000
-28.670 -21.040 178.000
-28.225 -21.040 178.000
-27.779 -21.040 178.000
-27.334 -21.040 178.000
-27.039 -21.158 179.000
-26.592 -21.158 179.000
-26.144 -21.158 179.000
-25.696 -21.158 179.000
-25.248 -21.158 179.000
-24.800 -21.158 179.000
-24.352 -21.158 179.000
-23.904 -21.158 179.000
-23.587 -21.276 180.000
-23.137 -21.276 180.000
-22.687 -21.276 180.000
-22.236 -21.276 180.000
-21.786 -21.276 180.000
-21.335 -21.276 180.000
-20.885 -21.276 180.000
-20.435 -21.276 180.000
-20.095 -21.394 181.000
-19.642 -21.394 181.000
-19.189 -21.394 181.000
-18.736 -21.394 181.000
-18.486 -21.631 183.000
-18.028 -21.631 183.000
-17.570 -21.631 183.000
-17.112 -21.631 183.000
-16.745 -21.749 184.000
-16.285 -21.749 184.000
-15.910 -21.867 185.000
-15.447 -21.867 185.000
-14.903 -21.749 184.000
-14.443 -21.749 184.000
-14.211 -22.103 187.000
-13.743 -22.103 187.000
-13.204 -21.985 186.000
-12.738 -21.985 186.000
-12.339 -22.103 187.000
-11.871 -22.103 187.000
-11.403 -22.103 187.000
-10.935 -22.103 187.000
-10.523 -22.222 188.000
-10.053 -22.222 188.000
-9.582 -22.222 188.000
-9.112 -22.222 188.000
-8.779 -22.576 191.000
-8.302 -22.576 191.000
-7.824 -22.576 191.000
-7.346 -22.576 191.000
-6.868 -22.576 191.000
-6.390 -22.576 191.000
-5.912 -22.576 191.000
-5.434 -22.576 191.000
-4.956 -22.576 191.000
-4.478 -22.576 191.000
-4.021 -22.694 192.000
-3.541 -22.694 192.000
-3.076 -22.813 193.000
-2.593 -22.813 193.000
-2.110 -22.813 193.000
-1.628 -22.813 193.000
-1.145 -22.813 193.000
-0.662 -22.813 193.000
-0.179 -22.813 193.000
0.304 -22.813 193.000
0.799 -23.167 196.000
1.290 -23.167 196.000
1.780 -23.167 196.000
2.271 -23.167 196.000
2.775 -23.285 197.000
3.268 -23.285 197.000
3.761 -23.285 197.000
4.254 -23.285 197.000
4.747 -23.285 197.000
5.240 -23.285 197.000
5.733 -23.285 197.000
6.226 -23.285 197.000
6.719 -23.285 197.000
7.212 -23.285 197.000
7.704 -23.285 197.000
8.197 -23.285 197.000
8.690 -23.285 197.000
9.183 -23.285 197.000
9.676 -23.285 197.000
10.169 -23.285 197.000
10.662 -23.285 197.000
11.212 -23.404 198.000
11.707 -23.404 198.000
12.203 -23.404 198.000
12.698 -23.404 198.000
13.193 -23.404 198.000
13.689 -23.404 198.000
14.256 -23.522 199.000
14.754 -23.522 199.000
15.252 -23.522 199.000
15.750 -23.522 199.000
16.248 -23.522 199.000
16.746 -23.522 199.000
17.330 -23.640 200.000
17.831 -23.640 200.000
18.331 -23.640 200.000
18.831 -23.640 200.000
19.429 -23.758 201.000
19.932 -23.758 201.000
20.434 -23.758 201.000
20.937 -23.758 201.000
21.440 -23.758 201.000
21.943 -23.758 201.000
22.446 -23.758 201.000
22.949 -23.758 201.000
23.569 -23.876 202.000
24.074 -23.876 202.000
24.580 -23.876 202.000
25.085 -23.876 202.000
25.591 -23.876 202.000
26.096 -23.876 202.000
26.601 -23.876 202.000
27.107 -23.876 202.000
27.612 -23.876 202.000
28.118 -23.876 202.000
28.623 -23.876 202.000
29.129 -23.876 202.000
29.634 -23.876 202.000
30.140 -23.876 202.000
30.645 -23.876 202.000
31.150 -23.876 202.000
31.656 -23.876 202.000
32.161 -23.876 202.000
32.667 -23.876 202.000
33.172 -23.876 202.000
33.678 -23.876 202.000
34.183 -23.876 202.000
34.689 -23.876 202.000
35.194 -23.876 202.000
35.876 -23.995 203.000
36.384 -23.995 203.000
36.892 -23.995 203.000
37.400 -23.995 203.000
37.908 -23.995 203.000
38.416 -23.995 203.000
38.924 -23.995 203.000
39.432 -23.995 203.000
39.940 -23.995 203.000
40.448 -23.995 203.000
40.956 -23.995 203.000
41.464 -23.995 203.000
41.972 -23.995 203.000
42.480 -23.995 203.000
42.987 -23.995 203.000
43.495 -23.995 203.000
44.003 -23.995 203.000
44.511 -23.995 203.000
45.019 -23.995 203.000
45.527 -23.995 203.000
46.035 -23.995 203.000
46.543 -23.995 203.000
47.051 -23.995 203.000
47.559 -23.995 203.000
48.067 -23.995 203.000
48.575 -23.995 203.000
49.083 -23.995 203.000
49.591 -23.995 203.000
50.099 -23.995 203.000
50.607 -23.995 203.000
51.115 -23.995 203.000
51.623 -23.995 203.000
52.131 -23.995 203.000
52.638 -23.995 203.000
53.146 -23.995 203.000
53.654 -23.995 203.000
54.162 -23.995 203.000
54.670 -23.995 203.000
55.178 -23.995 203.000
55.686 -23.995 203.000
56.194 -23.995 203.000
56.702 -23.995 203.000
56.928 -23.876 202.000
57.434 -23.876 202.000
58.226 -23.995 203.000
58.734 -23.995 203.000
58.950 -23.876 202.000
59.455 -23.876 202.000
59.961 -23.876 202.000
60.466 -23.876 202.000
60.972 -23.876 202.000
61.477 -23.876 202.000
61.983 -23.876 202.000
62.488 -23.876 202.000
62.993 -23.876 202.000
63.499 -23.876 202.000
64.004 -23.876 202.000
64.510 -23.876 202.000
65.015 -23.876 202.000
65.521 -23.876 202.000
66.026 -23.876 202.000
66.532 -23.876 202.000
67.037 -23.876 202.000
67.543 -23.876 202.000
68.048 -23.876 202.000
68.553 -23.876 202.000
69.059 -23.876 202.000
69.564 -23.876 202.000
70.070 -23.876 202.000
70.575 -23.876 202.000
71.081 -23.876 202.000
71.586 -23.876 202.000
72.092 -23.876 202.000
72.597 -23.876 202.000
73.102 -23.876 202.000
73.608 -23.876 202.000
74.113 -23.876 202.000
74.619 -23.876 202.000
75.124 -23.876 202.000
75.630 -23.876 202.000
76.135 -23.876 202.000
76.641 -23.876 202.000
77.146 -23.876 202.000
77.651 -23.876 202.000
78.157 -23.876 202.000
78.662 -23.876 202.000
79.168 -23.876 202.000
79.673 -23.876 202.000
80.179 -23.876 202.000
81.083 -23.995 203.000
81.591 -23.995 203.000
82.099 -23.995 203.000
82.607 -23.995 203.000
83.115 -23.995 203.000
83.623 -23.995 203.000
84.131 -23.995 203.000
84.639 -23.995 203.000
85.147 -23.995 203.000
85.655 -23.995 203.000
86.163 -23.995 203.000
86.671 -23.995 203.000
87.179 -23.995 203.000
87.687 -23.995 203.000
88.629 -24.113 204.000
89.140 -24.113 204.000
89.650 -24.113 204.000
90.161 -24.113 204.000
90.671 -24.113 204.000
91.181 -24.113 204.000
91.692 -24.113 204.000
92.202 -24.113 204.000
92.713 -24.113 204.000
93.223 -24.113 204.000
94.193 -24.231 205.000
94.706 -24.231 205.000
95.219 -24.231 205.000
95.732 -24.231 205.000
96.245 -24.231 205.000
96.758 -24.231 205.000
97.271 -24.231 205.000
97.784 -24.231 205.000
97.817 -24.113 204.000
98.328 -24.113 204.000
99.323 -24.231 205.000
99.836 -24.231 205.000
100.349 -24.231 205.000
100.862 -24.231 205.000
101.374 -24.231 205.000
101.887 -24.231 205.000
101.901 -24.113 204.000
102.411 -24.113 204.000
102.922 -24.113 204.000
103.432 -24.113 204.000
104.452 -24.231 205.000
104.965 -24.231 205.000
104.964 -24.113 204.000
105.474 -24.113 204.000
105.984 -24.113 204.000
106.495 -24.113 204.000
107.005 -24.113 204.000
107.516 -24.113 204.000
108.026 -24.113 204.000
108.537 -24.113 204.000
109.047 -24.113 204.000
109.558 -24.113 204.000
110.068 -24.113 204.000
110.579 -24.113 204.000
111.089 -24.113 204.000
111.599 -24.113 204.000
112.110 -24.113 204.000
112.620 -24.113 204.000
113.131 -24.113 204.000
113.641 -24.113 204.000
114.152 -24.113 204.000
114.662 -24.113 204.000
115.173 -24.113 204.000
115.683 -24.113 204.000
116.193 -24.113 204.000
116.704 -24.113 204.000
117.789 -24.231 205.000
118.302 -24.231 205.000
119.394 -24.349 206.000
119.910 -24.349 206.000
120.425 -24.349 206.000
120.941 -24.349 206.000
121.456 -24.349 206.000
121.972 -24.349 206.000
122.487 -24.349 206.000
123.003 -24.349 206.000
123.518 -24.349 206.000
124.034 -24.349 206.000
124.549 -24.349 206.000
125.064 -24.349 206.000
125.580 -24.349 206.000
126.095 -24.349 206.000
125.996 -24.231 205.000
126.509 -24.231 205.000
127.022 -24.231 205.000
127.535 -24.231 205.000
128.048 -24.231 205.000
128.561 -24.231 205.000
129.704 -24.349 206.000
130.219 -24.349 206.000
130.734 -24.349 206.000
131.250 -24.349 206.000
131.765 -24.349 206.000
132.281 -24.349 206.000
133.441 -24.467 207.000
133.959 -24.467 207.000
134.477 -24.467 207.000
134.995 -24.467 207.000
135.513 -24.467 207.000
136.031 -24.467 207.000
136.549 -24.467 207.000
137.067 -24.467 207.000
137.585 -24.467 207.000
138.102 -24.467 207.000
138.620 -24.467 207.000
139.138 -24.467 207.000
139.656 -24.467 207.000
140.174 -24.467 207.000
141.372 -24.586 208.000
141.892 -24.586 208.000
142.413 -24.586 208.000
142.933 -24.586 208.000
143.454 -24.586 208.000
143.974 -24.586 208.000
145.884 -24.822 210.000
146.410 -24.822 210.000
146.935 -24.822 210.000
147.460 -24.822 210.000
147.986 -24.822 210.000
151.340 -25.295 214.000
151.876 -25.295 214.000
152.411 -25.295 214.000
152.947 -25.295 214.000
154.199 -25.413 215.000
154.737 -25.413 215.000
155.275 -25.413 215.000
155.813 -25.413 215.000
157.078 -25.531 216.000
157.619 -25.531 216.000
158.892 -25.649 217.000
159.434 -25.649 217.000
159.977 -25.649 217.000
160.520 -25.649 217.000
164.775 -26.240 222.000
165.330 -26.240 222.000
171.116 -27.068 229.000
171.689 -27.068 229.000
-82.698 -16.892 146.000
-82.333 -16.892 146.000
-81.967 -16.892 146.000
-81.602 -16.892 146.000
-80.680 -16.776 145.000
-80.317 -16.776 145.000
-79.955 -16.776 145.000
-79.592 -16.776 145.000
-79.229 -16.776 145.000
-78.866 -16.776 145.000
-78.503 -16.776 145.000
-78.140 -16.776 145.000
-77.778 -16.776 145.000
-77.415 -16.776 145.000
-77.583 -16.892 146.000
-77.218 -16.892 146.000
-76.853 -16.892 146.000
-76.487 -16.892 146.000
-72.230 -17.008 147.000
-71.862 -17.008 147.000
-71.494 -17.008 147.000
-71.126 -17.008 147.000
-70.758 -17.008 147.000
-70.390 -17.008 147.000
-70.023 -17.008 147.000
-69.655 -17.008 147.000
-70.230 -17.239 149.000
-69.857 -17.239 149.000
-73.215 -18.165 157.000
-72.822 -18.165 157.000
-72.429 -18.165 157.000
-72.036 -18.165 157.000
-71.643 -18.165 157.000
-71.250 -18.165 157.000
-70.858 -18.165 157.000
-70.465 -18.165 157.000
-70.072 -18.165 157.000
-69.679 -18.165 157.000
-69.286 -18.165 157.000
-68.893 -18.165 157.000
-68.501 -18.165 157.000
-68.108 -18.165 157.000
-67.715 -18.165 157.000
-67.322 -18.165 157.000
-66.929 -18.165 157.000
-66.536 -18.165 157.000
-66.144 -18.165 157.000
-65.751 -18.165 157.000
-65.358 -18.165 157.000
-64.965 -18.165 157.000
-64.572 -18.165 157.000
-64.179 -18.165 157.000
-63.786 -18.165 157.000
-63.394 -18.165 157.000
-63.001 -18.165 157.000
-62.608 -18.165 157.000
-62.215 -18.165 157.000
-62.216 -18.280 158.000
-61.821 -18.280 158.000
-61.425 -18.280 158.000
-61.030 -18.280 158.000
-60.635 -18.280 158.000
-60.239 -18.280 158.000
-60.601 -18.512 160.000
-60.201 -18.512 160.000
-60.174 -18.627 161.000
-59.772 -18.627 161.000
-59.369 -18.627 161.000
-58.966 -18.627 161.000
-58.563 -18.627 161.000
-58.160 -18.627 161.000
-57.757 -18.627 161.000
-57.354 -18.627 161.000
-57.305 -18.743 162.000
-56.900 -18.743 162.000
-56.495 -18.743 162.000
-56.089 -18.743 162.000
-56.028 -18.859 163.000
-55.620 -18.859 163.000
-55.212 -18.859 163.000
-54.804 -18.859 163.000
-54.730 -18.974 164.000
-54.320 -18.974 164.000
-53.909 -18.974 164.000
-53.499 -18.974 164.000
-53.088 -18.974 164.000
-52.678 -18.974 164.000
-52.268 -18.974 164.000
-51.857 -18.974 164.000
-51.447 -18.974 164.000
-51.037 -18.974 164.000
-50.626 -18.974 164.000
-50.216 -18.974 164.000
-50.109 -19.090 165.000
-49.696 -19.090 165.000
-49.284 -19.090 165.000
-48.871 -19.090 165.000
-48.458 -19.090 165.000
-48.045 -19.090 165.000
-47.632 -19.090 165.000
-47.219 -19.090 165.000
-47.090 -19.206 166.000
-46.675 -19.206 166.000
-46.259 -19.206 166.000
-45.844 -19.206 166.000
-45.702 -19.321 167.000
-45.284 -19.321 167.000
-44.867 -19.321 167.000
-44.449 -19.321 167.000
-44.031 -19.321 167.000
-43.613 -19.321 167.000
-43.195 -19.321 167.000
-42.777 -19.321 167.000
-42.359 -19.321 167.000
-41.941 -19.321 167.000
-41.772 -19.437 168.000
-41.352 -19.437 168.000
-40.931 -19.437 168.000
-40.511 -19.437 168.000
-40.329 -19.553 169.000
-39.907 -19.553 169.000
-39.951 -19.784 171.000
-39.523 -19.784 171.000
-39.552 -20.016 173.000
-39.120 -20.016 173.000
-38.687 -20.016 173.000
-38.254 -20.016 173.000
-38.040 -20.131 174.000
-37.604 -20.131 174.000
-37.169 -20.131 174.000
-36.733 -20.131 174.000
-36.298 -20.131 174.000
-35.863 -20.131 174.000
-35.427 -20.131 174.000
-34.992 -20.131 174.000
-34.556 -20.131 174.000
-34.317 -20.247 175.000
-33.879 -20.247 175.000
-33.441 -20.247 175.000
-33.003 -20.247 175.000
-32.566 -20.247 175.000
-32.128 -20.247 175.000
-31.871 -20.363 176.000
-31.431 -20.363 176.000
-30.990 -20.363 176.000
-30.550 -20.363 176.000
-30.280 -20.478 177.000
-29.838 -20.478 177.000
-29.395 -20.478 177.000
-28.952 -20.478 177.000
-28.670 -20.594 178.000
-28.225 -20.594 178.000
-27.779 -20.594 178.000
-27.334 -20.594 178.000
-27.039 -20.710 179.000
-26.592 -20.710 179.000
-26.144 -20.710 179.000
-25.696 -20.710 179.000
-25.248 -20.710 179.000
-24.800 -20.710 179.000
-24.352 -20.710 179.000
-23.904 -20.710 179.000
-23.587 -20.826 180.000
-23.137 -20.826 180.000
-22.687 -20.826 180.000
-22.236 -20.826 180.000
-21.786 -20.826 180.000
-21.335 -20.826 180.000
-20.885 -20.826 180.000
-20.435 -20.826 180.000
-19.984 -20.826 180.000
-19.534 -20.826 180.000
-19.189 -20.941 181.000
-18.736 -20.941 181.000
-18.385 -21.057 182.000
-17.929 -21.057 182.000
-17.570 -21.173 183.000
-17.112 -21.173 183.000
-16.654 -21.173 183.000
-16.196 -21.173 183.000
-15.824 -21.288 184.000
-15.364 -21.288 184.000
-14.903 -21.288 184.000
-14.443 -21.288 184.000
-14.135 -21.520 186.000
-13.669 -21.520 186.000
-13.204 -21.520 186.000
-12.738 -21.520 186.000
-12.339 -21.635 187.000
-11.871 -21.635 187.000
-11.403 -21.635 187.000
-10.935 -21.635 187.000
-10.523 -21.751 188.000
-10.053 -21.751 188.000
-9.582 -21.751 188.000
-9.112 -21.751 188.000
-8.642 -21.751 188.000
-8.171 -21.751 188.000
-7.824 -22.098 191.000
-7.346 -22.098 191.000
-6.832 -21.983 190.000
-6.356 -21.983 190.000
-5.912 -22.098 191.000
-5.434 -22.098 191.000
-4.956 -22.098 191.000
-4.478 -22.098 191.000
-4.000 -22.098 191.000
-3.522 -22.098 191.000
-3.060 -22.214 192.000
-2.580 -22.214 192.000
-2.110 -22.330 193.000
-1.628 -22.330 193.000
-1.145 -22.330 193.000
-0.662 -22.330 193.000
-0.179 -22.330 193.000
0.304 -22.330 193.000
0.787 -22.330 193.000
1.270 -22.330 193.000
1.780 -22.677 196.000
2.271 -22.677 196.000
2.761 -22.677 196.000
3.251 -22.677 196.000
3.761 -22.792 197.000
4.254 -22.792 197.000
4.747 -22.792 197.000
5.240 -22.792 197.000
5.733 -22.792 197.000
6.226 -22.792 197.000
6.719 -22.792 197.000
7.212 -22.792 197.000
7.704 -22.792 197.000
8.197 -22.792 197.000
8.690 -22.792 197.000
9.183 -22.792 197.000
9.676 -22.792 197.000
10.169 -22.792 197.000
10.662 -22.792 197.000
11.212 -22.908 198.000
11.707 -22.908 198.000
12.203 -22.908 198.000
12.698 -22.908 198.000
13.193 -22.908 198.000
13.689 -22.908 198.000
14.256 -23.024 199.000
14.754 -23.024 199.000
15.252 -23.024 199.000
15.750 -23.024 199.000
16.248 -23.024 199.000
16.746 -23.024 199.000
17.330 -23.140 200.000
17.831 -23.140 200.000
18.331 -23.140 200.000
18.831 -23.140 200.000
19.429 -23.255 201.000
19.932 -23.255 201.000
20.434 -23.255 201.000
20.937 -23.255 201.000
21.440 -23.255 201.000
21.943 -23.255 201.000
22.446 -23.255 201.000
22.949 -23.255 201.000
23.569 -23.371 202.000
24.074 -23.371 202.000
24.580 -23.371 202.000
25.085 -23.371 202.000
25.591 -23.371 202.000
26.096 -23.371 202.000
26.601 -23.371 202.000
27.107 -23.371 202.000
27.612 -23.371 202.000
28.118 -23.371 202.000
28.623 -23.371 202.000
29.129 -23.371 202.000
29.634 -23.371 202.000
30.140 -23.371 202.000
30.645 -23.371 202.000
31.150 -23.371 202.000
31.656 -23.371 202.000
32.161 -23.371 202.000
32.667 -23.371 202.000
33.172 -23.371 202.000
33.678 -23.371 202.000
34.183 -23.371 202.000
34.689 -23.371 202.000
35.194 -23.371 202.000
35.876 -23.487 203.000
36.384 -23.487 203.000
36.892 -23.487 203.000
37.400 -23.487 203.000
37.908 -23.487 203.000
38.416 -23.487 203.000
38.924 -23.487 203.000
39.432 -23.487 203.000
39.940 -23.487 203.000
40.448 -23.487 203.000
40.956 -23.487 203.000
41.464 -23.487 203.000
41.972 -23.487 203.000
42.480 -23.487 203.000
42.987 -23.487 203.000
43.495 -23.487 203.000
44.003 -23.487 203.000
44.511 -23.487 203.000
45.019 -23.487 203.000
45.527 -23.487 203.000
46.035 -23.487 203.000
46.543 -23.487 203.000
47.051 -23.487 203.000
47.559 -23.487 203.000
48.067 -23.487 203.000
48.575 -23.487 203.000
49.083 -23.487 203.000
49.591 -23.487 203.000
50.099 -23.487 203.000
50.607 -23.487 203.000
51.115 -23.487 203.000
51.623 -23.487 203.000
52.131 -23.487 203.000
52.638 -23.487 203.000
53.146 -23.487 203.000
53.654 -23.487 203.000
54.162 -23.487 203.000
54.670 -23.487 203.000
55.178 -23.487 203.000
55.686 -23.487 203.000
56.194 -23.487 203.000
56.702 -23.487 203.000
56.928 -23.371 202.000
57.434 -23.371 202.000
58.226 -23.487 203.000
58.734 -23.487 203.000
58.950 -23.371 202.000
59.455 -23.371 202.000
59.961 -23.371 202.000
60.466 -23.371 202.000
60.972 -23.371 202.000
61.477 -23.371 202.000
61.983 -23.371 202.000
62.488 -23.371 202.000
62.993 -23.371 202.000
63.499 -23.371 202.000
64.004 -23.371 202.000
64.510 -23.371 202.000
65.015 -23.371 202.000
65.521 -23.371 202.000
66.026 -23.371 202.000
66.532 -23.371 202.000
67.037 -23.371 202.000
67.543 -23.371 202.000
68.048 -23.371 202.000
68.553 -23.371 202.000
69.059 -23.371 202.000
69.564 -23.371 202.000
70.070 -23.371 202.000
70.575 -23.371 202.000
71.081 -23.371 202.000
71.586 -23.371 202.000
72.092 -23.371 202.000
72.597 -23.371 202.000
73.102 -23.371 202.000
73.608 -23.371 202.000
74.113 -23.371 202.000
74.619 -23.371 202.000
75.124 -23.371 202.000
75.630 -23.371 202.000
76.135 -23.371 202.000
76.641 -23.371 202.000
77.146 -23.371 202.000
77.651 -23.371 202.000
78.157 -23.371 202.000
78.662 -23.371 202.000
79.168 -23.371 202.000
79.673 -23.371 202.000
80.179 -23.371 202.000
81.083 -23.487 203.000
81.591 -23.487 203.000
82.099 -23.487 203.000
82.607 -23.487 203.000
83.115 -23.487 203.000
83.623 -23.487 203.000
84.131 -23.487 203.000
84.639 -23.487 203.000
85.147 -23.487 203.000
85.655 -23.487 203.000
86.163 -23.487 203.000
86.671 -23.487 203.000
87.179 -23.487 203.000
87.687 -23.487 203.000
88.629 -23.602 204.000
89.140 -23.602 204.000
89.650 -23.602 204.000
90.161 -23.602 204.000
90.671 -23.602 204.000
91.181 -23.602 204.000
91.692 -23.602 204.000
92.202 -23.602 204.000
92.713 -23.602 204.000
93.223 -23.602 204.000
94.193 -23.718 205.000
94.706 -23.718 205.000
95.219 -23.718 205.000
95.732 -23.718 205.000
96.245 -23.718 205.000
96.758 -23.718 205.000
97.271 -23.718 205.000
97.784 -23.718 205.000
97.817 -23.602 204.000
98.328 -23.602 204.000
99.323 -23.718 205.000
99.836 -23.718 205.000
100.349 -23.718 205.000
100.862 -23.718 205.000
101.374 -23.718 205.000
101.887 -23.718 205.000
101.901 -23.602 204.000
102.411 -23.602 204.000
102.922 -23.602 204.000
103.432 -23.602 204.000
104.452 -23.718 205.000
104.965 -23.718 205.000
104.964 -23.602 204.000
105.474 -23.602 204.000
105.984 -23.602 204.000
106.495 -23.602 204.000
107.005 -23.602 204.000
107.516 -23.602 204.000
108.026 -23.602 204.000
108.537 -23.602 204.000
109.047 -23.602 204.000
109.558 -23.602 204.000
110.068 -23.602 204.000
110.579 -23.602 204.000
111.089 -23.602 204.000
111.599 -23.602 204.000
112.110 -23.602 204.000
112.620 -23.602 204.000
113.131 -23.602 204.000
113.641 -23.602 204.000
114.152 -23.602 204.000
114.662 -23.602 204.000
115.173 -23.602 204.000
115.683 -23.602 204.000
116.193 -23.602 204.000
116.704 -23.602 204.000
117.789 -23.718 205.000
118.302 -23.718 205.000
119.394 -23.834 206.000
119.910 -23.834 206.000
120.425 -23.834 206.000
120.941 -23.834 206.000
121.456 -23.834 206.000
121.972 -23.834 206.000
122.487 -23.834 206.000
123.003 -23.834 206.000
123.518 -23.834 206.000
124.034 -23.834 206.000
124.549 -23.834 206.000
125.064 -23.834 206.000
125.580 -23.834 206.000
126.095 -23.834 206.000
125.996 -23.718 205.000
126.509 -23.718 205.000
127.022 -23.718 205.000
127.535 -23.718 205.000
128.048 -23.718 205.000
128.561 -23.718 205.000
129.704 -23.834 206.000
130.219 -23.834 206.000
130.734 -23.834 206.000
131.250 -23.834 206.000
131.765 -23.834 206.000
132.281 -23.834 206.000
133.441 -23.949 207.000
133.959 -23.949 207.000
134.477 -23.949 207.000
134.995 -23.949 207.000
135.513 -23.949 207.000
136.031 -23.949 207.000
136.549 -23.949 207.000
137.067 -23.949 207.000
137.585 -23.949 207.000
138.102 -23.949 207.000
138.620 -23.949 207.000
139.138 -23.949 207.000
139.656 -23.949 207.000
140.174 -23.949 207.000
141.372 -24.065 208.000
141.892 -24.065 208.000
142.413 -24.065 208.000
142.933 -24.065 208.000
143.454 -24.065 208.000
143.974 -24.065 208.000
145.884 -24.296 210.000
146.410 -24.296 210.000
146.935 -24.296 210.000
147.460 -24.296 210.000
147.986 -24.296 210.000
151.340 -24.759 214.000
151.876 -24.759 214.000
152.411 -24.759 214.000
152.947 -24.759 214.000
154.199 -24.875 215.000
154.737 -24.875 215.000
155.275 -24.875 215.000
155.813 -24.875 215.000
157.078 -24.991 216.000
157.619 -24.991 216.000
158.892 -25.106 217.000
159.434 -25.106 217.000
159.977 -25.106 217.000
160.520 -25.106 217.000
164.775 -25.685 222.000
165.330 -25.685 222.000
171.116 -26.495 229.000
171.689 -26.495 229.000
-82.698 -16.527 146.000
-82.333 -16.527 146.000
-81.967 -16.527 146.000
-81.602 -16.527 146.000
-80.680 -16.413 145.000
-80.317 -16.413 145.000
-79.955 -16.413 145.000
-79.592 -16.413 145.000
-79.229 -16.413 145.000
-78.866 -16.413 145.000
-78.503 -16.413 145.000
-78.140 -16.413 145.000
-77.778 -16.413 145.000
-77.415 -16.413 145.000
-77.583 -16.527 146.000
-77.218 -16.527 146.000
-76.853 -16.527 146.000
-76.487 -16.527 146.000
-72.230 -16.640 147.000
-71.862 -16.640 147.000
-71.494 -16.640 147.000
-71.126 -16.640 147.000
-70.758 -16.640 147.000
-70.390 -16.640 147.000
-70.023 -16.640 147.000
-69.655 -16.640 147.000
-70.230 -16.866 149.000
-69.857 -16.866 149.000
-73.215 -17.772 157.000
-72.822 -17.772 157.000
-72.429 -17.772 157.000
-72.036 -17.772 157.000
-71.643 -17.772 157.000
-71.250 -17.772 157.000
-70.858 -17.772 157.000
-70.465 -17.772 157.000
-70.072 -17.772 157.000
-69.679 -17.772 157.000
-69.286 -17.772 157.000
-68.893 -17.772 157.000
-68.501 -17.772 157.000
-68.108 -17.772 157.000
-67.715 -17.772 157.000
-67.322 -17.772 157.000
-66.929 -17.772 157.000
-66.536 -17.772 157.000
-66.144 -17.772 157.000
-65.751 -17.772 157.000
-65.358 -17.772 157.000
-64.965 -17.772 157.000
-64.572 -17.772 157.000
-64.179 -17.772 157.000
-63.786 -17.772 157.000
-63.394 -17.772 157.000
-63.001 -17.772 157.000
-62.608 -17.772 157.000
-62.215 -17.772 157.000
-62.216 -17.885 158.000
-61.821 -17.885 158.000
-61.425 -17.885 158.000
-61.030 -17.885 158.000
-60.635 -17.885 158.000
-60.239 -17.885 158.000
-60.601 -18.111 160.000
-60.201 -18.111 160.000
-60.174 -18.224 161.000
-59.772 -18.224 161.000
-59.369 -18.224 161.000
-58.966 -18.224 161.000
-58.563 -18.224 161.000
-58.160 -18.224 161.000
-57.757 -18.224 161.000
-57.354 -18.224 161.000
-57.305 -18.338 162.000
-56.900 -18.338 162.000
-56.495 -18.338 162.000
-56.089 -18.338 162.000
-56.028 -18.451 163.000
-55.620 -18.451 163.000
-55.212 -18.451 163.000
-54.804 -18.451 163.000
-54.730 -18.564 164.000
-54.320 -18.564 164.000
-53.909 -18.564 164.000
-53.499 -18.564 164.000
-53.088 -18.564 164.000
-52.678 -18.564 164.000
-52.268 -18.564 164.000
-51.857 -18.564 164.000
-51.447 -18.564 164.000
-51.037 -18.564 164.000
-50.626 -18.564 164.000
-50.216 -18.564 164.000
-50.109 -18.677 165.000
-49.696 -18.677 165.000
-49.284 -18.677 165.000
-48.871 -18.677 165.000
-48.458 -18.677 165.000
-48.045 -18.677 165.000
-47.632 -18.677 165.000
-47.219 -18.677 165.000
-47.090 -18.790 166.000
-46.675 -18.790 166.000
-46.259 -18.790 166.000
-45.844 -18.790 166.000
-45.702 -18.904 167.000
-45.284 -18.904 167.000
-44.867 -18.904 167.000
-44.449 -18.904 167.000
-44.031 -18.904 167.000
-43.613 -18.904 167.000
-43.195 -18.904 167.000
-42.777 -18.904 167.000
-42.359 -18.904 167.000
-41.941 -18.904 167.000
-41.772 -19.017 168.000
-41.352 -19.017 168.000
-40.931 -19.017 168.000
-40.511 -19.017 168.000
-40.329 -19.130 169.000
-39.907 -19.130 169.000
-39.951 -19.356 171.000
-39.523 -19.356 171.000
-39.552 -19.583 173.000
-39.120 -19.583 173.000
-38.687 -19.583 173.000
-38.254 -19.583 173.000
-37.821 -19.583 173.000
-37.604 -19.696 174.000
-37.169 -19.696 174.000
-36.733 -19.696 174.000
-36.298 -19.696 174.000
-35.863 -19.696 174.000
-35.427 -19.696 174.000
-34.992 -19.696 174.000
-34.556 -19.696 174.000
-34.317 -19.809 175.000
-33.879 -19.809 175.000
-33.441 -19.809 175.000
-33.003 -19.809 175.000
-32.566 -19.809 175.000
-32.128 -19.809 175.000
-31.871 -19.922 176.000
-31.431 -19.922 176.000
-30.990 -19.922 176.000
-30.550 -19.922 176.000
-30.280 -20.036 177.000
-29.838 -20.036 177.000
-29.395 -20.036 177.000
-28.952 -20.036 177.000
-28.670 -20.149 178.000
-28.225 -20.149 178.000
-27.779 -20.149 178.000
-27.334 -20.149 178.000
-27.039 -20.262 179.000
-26.592 -20.262 179.000
-26.144 -20.262 179.000
-25.696 -20.262 179.000
-25.248 -20.262 179.000
-24.800 -20.262 179.000
-24.352 -20.262 179.000
-23.904 -20.262 179.000
-23.587 -20.375 180.000
-23.137 -20.375 180.000
-22.687 -20.375 180.000
-22.236 -20.375 180.000
-21.786 -20.375 180.000
-21.335 -20.375 180.000
-20.885 -20.375 180.000
-20.435 -20.375 180.000
-19.984 -20.375 180.000
-19.534 -20.375 180.000
-19.189 -20.488 181.000
-18.736 -20.488 181.000
-18.385 -20.602 182.000
-17.929 -20.602 182.000
-17.570 -20.715 183.000
-17.112 -20.715 183.000
-16.654 -20.715 183.000
-16.196 -20.715 183.000
-15.824 -20.828 184.000
-15.364 -20.828 184.000
-14.903 -20.828 184.000
-14.443 -20.828 184.000
-14.135 -21.054 186.000
-13.669 -21.054 186.000
-13.204 -21.054 186.000
-12.738 -21.054 186.000
-12.339 -21.168 187.000
-11.871 -21.168 187.000
-11.403 -21.168 187.000
-10.935 -21.168 187.000
-10.523 -21.281 188.000
-10.053 -21.281 188.000
-9.582 -21.281 188.000
-9.112 -21.281 188.000
-8.642 -21.281 188.000
-8.171 -21.281 188.000
-7.824 -21.620 191.000
-7.346 -21.620 191.000
-6.832 -21.507 190.000
-6.356 -21.507 190.000
-5.912 -21.620 191.000
-5.434 -21.620 191.000
-4.956 -21.620 191.000
-4.478 -21.620 191.000
-4.000 -21.620 191.000
-3.522 -21.620 191.000
-3.060 -21.733 192.000
-2.580 -21.733 192.000
-2.110 -21.847 193.000
-1.628 -21.847 193.000
-1.145 -21.847 193.000
-0.662 -21.847 193.000
-0.179 -21.847 193.000
0.304 -21.847 193.000
0.787 -21.847 193.000
1.270 -21.847 193.000
1.780 -22.186 196.000
2.271 -22.186 196.000
2.761 -22.186 196.000
3.251 -22.186 196.000
3.742 -22.186 196.000
4.254 -22.299 197.000
4.747 -22.299 197.000
5.240 -22.299 197.000
5.733 -22.299 197.000
6.226 -22.299 197.000
6.719 -22.299 197.000
7.212 -22.299 197.000
7.704 -22.299 197.000
8.197 -22.299 197.000
8.690 -22.299 197.000
9.183 -22.299 197.000
9.676 -22.299 197.000
10.169 -22.299 197.000
10.662 -22.299 197.000
11.155 -22.299 197.000
11.648 -22.299 197.000
12.203 -22.413 198.000
12.698 -22.413 198.000
13.193 -22.413 198.000
13.689 -22.413 198.000
14.184 -22.413 198.000
14.680 -22.413 198.000
15.252 -22.526 199.000
15.750 -22.526 199.000
16.248 -22.526 199.000
16.746 -22.526 199.000
17.330 -22.639 200.000
17.831 -22.639 200.000
18.331 -22.639 200.000
18.831 -22.639 200.000
19.332 -22.639 200.000
19.832 -22.639 200.000
20.434 -22.752 201.000
20.937 -22.752 201.000
21.440 -22.752 201.000
21.943 -22.752 201.000
22.446 -22.752 201.000
22.949 -22.752 201.000
23.452 -22.752 201.000
23.955 -22.752 201.000
24.458 -22.752 201.000
24.961 -22.752 201.000
25.591 -22.865 202.000
26.096 -22.865 202.000
26.601 -22.865 202.000
27.107 -22.865 202.000
27.612 -22.865 202.000
28.118 -22.865 202.000
28.623 -22.865 202.000
29.129 -22.865 202.000
29.634 -22.865 202.000
30.140 -22.865 202.000
30.645 -22.865 202.000
31.150 -22.865 202.000
31.656 -22.865 202.000
32.161 -22.865 202.000
32.667 -22.865 202.000
33.172 -22.865 202.000
33.678 -22.865 202.000
34.183 -22.865 202.000
34.689 -22.865 202.000
35.194 -22.865 202.000
35.699 -22.865 202.000
36.205 -22.865 202.000
36.710 -22.865 202.000
37.216 -22.865 202.000
37.721 -22.865 202.000
38.227 -22.865 202.000
38.732 -22.865 202.000
39.238 -22.865 202.000
39.940 -22.979 203.000
40.448 -22.979 203.000
40.956 -22.979 203.000
41.464 -22.979 203.000
41.972 -22.979 203.000
42.480 -22.979 203.000
42.987 -22.979 203.000
43.495 -22.979 203.000
44.003 -22.979 203.000
44.511 -22.979 203.000
44.797 -22.865 202.000
45.303 -22.865 202.000
45.808 -22.865 202.000
46.314 -22.865 202.000
46.819 -22.865 202.000
47.325 -22.865 202.000
47.830 -22.865 202.000
48.336 -22.865 202.000
48.841 -22.865 202.000
49.346 -22.865 202.000
49.852 -22.865 202.000
50.357 -22.865 202.000
50.863 -22.865 202.000
51.368 -22.865 202.000
51.874 -22.865 202.000
52.379 -22.865 202.000
52.885 -22.865 202.000
53.390 -22.865 202.000
53.895 -22.865 202.000
54.401 -22.865 202.000
54.906 -22.865 202.000
55.412 -22.865 202.000
55.917 -22.865 202.000
56.423 -22.865 202.000
56.928 -22.865 202.000
57.434 -22.865 202.000
57.939 -22.865 202.000
58.444 -22.865 202.000
58.950 -22.865 202.000
59.455 -22.865 202.000
59.961 -22.865 202.000
60.466 -22.865 202.000
60.972 -22.865 202.000
61.477 -22.865 202.000
61.983 -22.865 202.000
62.488 -22.865 202.000
62.993 -22.865 202.000
63.499 -22.865 202.000
64.004 -22.865 202.000
64.510 -22.865 202.000
65.015 -22.865 202.000
65.521 -22.865 202.000
66.026 -22.865 202.000
66.532 -22.865 202.000
67.037 -22.865 202.000
67.543 -22.865 202.000
68.048 -22.865 202.000
68.553 -22.865 202.000
69.059 -22.865 202.000
69.564 -22.865 202.000
70.070 -22.865 202.000
70.575 -22.865 202.000
71.081 -22.865 202.000
71.586 -22.865 202.000
72.092 -22.865 202.000
72.597 -22.865 202.000
73.102 -22.865 202.000
73.608 -22.865 202.000
74.113 -22.865 202.000
74.619 -22.865 202.000
75.124 -22.865 202.000
75.630 -22.865 202.000
76.135 -22.865 202.000
76.641 -22.865 202.000
77.146 -22.865 202.000
77.651 -22.865 202.000
78.157 -22.865 202.000
78.662 -22.865 202.000
79.168 -22.865 202.000
79.673 -22.865 202.000
80.179 -22.865 202.000
80.684 -22.865 202.000
81.190 -22.865 202.000
81.695 -22.865 202.000
82.200 -22.865 202.000
82.706 -22.865 202.000
83.211 -22.865 202.000
83.717 -22.865 202.000
84.222 -22.865 202.000
85.147 -22.979 203.000
85.655 -22.979 203.000
86.163 -22.979 203.000
86.671 -22.979 203.000
87.179 -22.979 203.000
87.687 -22.979 203.000
88.195 -22.979 203.000
88.703 -22.979 203.000
89.211 -22.979 203.000
89.719 -22.979 203.000
90.671 -23.092 204.000
91.181 -23.092 204.000
91.692 -23.092 204.000
92.202 -23.092 204.000
92.713 -23.092 204.000
93.223 -23.092 204.000
93.734 -23.092 204.000
94.244 -23.092 204.000
94.755 -23.092 204.000
95.265 -23.092 204.000
95.775 -23.092 204.000
96.286 -23.092 204.000
96.322 -22.979 203.000
96.830 -22.979 203.000
97.338 -22.979 203.000
97.846 -22.979 203.000
98.354 -22.979 203.000
98.862 -22.979 203.000
99.859 -23.092 204.000
100.370 -23.092 204.000
100.880 -23.092 204.000
101.390 -23.092 204.000
101.901 -23.092 204.000
102.411 -23.092 204.000
102.922 -23.092 204.000
103.432 -23.092 204.000
103.943 -23.092 204.000
104.453 -23.092 204.000
104.964 -23.092 204.000
105.474 -23.092 204.000
105.984 -23.092 204.000
106.495 -23.092 204.000
107.005 -23.092 204.000
107.516 -23.092 204.000
108.556 -23.205 205.000
109.069 -23.205 205.000
109.582 -23.205 205.000
110.095 -23.205 205.000
110.068 -23.092 204.000
110.579 -23.092 204.000
111.089 -23.092 204.000
111.599 -23.092 204.000
112.110 -23.092 204.000
112.620 -23.092 204.000
113.131 -23.092 204.000
113.641 -23.092 204.000
114.152 -23.092 204.000
114.662 -23.092 204.000
115.173 -23.092 204.000
115.683 -23.092 204.000
116.193 -23.092 204.000
116.704 -23.092 204.000
117.789 -23.205 205.000
118.302 -23.205 205.000
118.815 -23.205 205.000
119.328 -23.205 205.000
120.425 -23.318 206.000
120.941 -23.318 206.000
121.456 -23.318 206.000
121.972 -23.318 206.000
122.487 -23.318 206.000
123.003 -23.318 206.000
123.518 -23.318 206.000
124.034 -23.318 206.000
124.549 -23.318 206.000
125.064 -23.318 206.000
125.580 -23.318 206.000
126.095 -23.318 206.000
125.996 -23.205 205.000
126.509 -23.205 205.000
127.022 -23.205 205.000
127.535 -23.205 205.000
128.673 -23.318 206.000
129.188 -23.318 206.000
129.704 -23.318 206.000
130.219 -23.318 206.000
130.734 -23.318 206.000
131.250 -23.318 206.000
131.765 -23.318 206.000
132.281 -23.318 206.000
133.441 -23.431 207.000
133.959 -23.431 207.000
134.477 -23.431 207.000
134.995 -23.431 207.000
135.513 -23.431 207.000
136.031 -23.431 207.000
136.549 -23.431 207.000
137.067 -23.431 207.000
136.920 -23.318 206.000
137.435 -23.318 206.000
137.951 -23.318 206.000
138.466 -23.318 206.000
139.656 -23.431 207.000
140.174 -23.431 207.000
141.372 -23.545 208.000
141.892 -23.545 208.000
143.098 -23.658 209.000
143.620 -23.658 209.000
145.523 -23.884 211.000
146.051 -23.884 211.000
146.579 -23.884 211.000
147.107 -23.884 211.000
147.635 -23.884 211.000
148.163 -23.884 211.000
148.691 -23.884 211.000
150.633 -24.111 213.000
151.166 -24.111 213.000
153.123 -24.337 215.000
153.661 -24.337 215.000
154.199 -24.337 215.000
154.737 -24.337 215.000
155.275 -24.337 215.000
155.813 -24.337 215.000
157.078 -24.450 216.000
157.619 -24.450 216.000
158.892 -24.563 217.000
159.434 -24.563 217.000
159.977 -24.563 217.000
160.520 -24.563 217.000
161.806 -24.677 218.000
162.351 -24.677 218.000
162.897 -24.677 218.000
163.442 -24.677 218.000
-82.857 -16.050 145.000
-82.494 -16.050 145.000
-82.698 -16.161 146.000
-82.333 -16.161 146.000
-81.406 -16.050 145.000
-81.043 -16.050 145.000
-80.680 -16.050 145.000
-80.317 -16.050 145.000
-79.955 -16.050 145.000
-79.592 -16.050 145.000
-79.229 -16.050 145.000
-78.866 -16.050 145.000
-78.503 -16.050 145.000
-78.140 -16.050 145.000
-77.778 -16.050 145.000
-77.415 -16.050 145.000
-77.052 -16.050 145.000
-76.689 -16.050 145.000
-76.853 -16.161 146.000
-76.487 -16.161 146.000
-76.122 -16.161 146.000
-75.757 -16.161 146.000
-75.908 -16.272 147.000
-75.540 -16.272 147.000
-75.172 -16.272 147.000
-74.804 -16.272 147.000
-73.930 -16.161 146.000
-73.565 -16.161 146.000
-73.701 -16.272 147.000
-73.333 -16.272 147.000
-72.965 -16.272 147.000
-72.597 -16.272 147.000
-72.230 -16.272 147.000
-71.862 -16.272 147.000
-71.494 -16.272 147.000
-71.126 -16.272 147.000
-70.758 -16.272 147.000
-70.390 -16.272 147.000
-70.023 -16.272 147.000
-69.655 -16.272 147.000
-69.287 -16.272 147.000
-68.919 -16.272 147.000
-69.018 -16.383 148.000
-68.647 -16.383 148.000
-71.506 -17.157 155.000
-71.119 -17.157 155.000
-71.643 -17.379 157.000
-71.250 -17.379 157.000
-70.858 -17.379 157.000
-70.465 -17.379 157.000
-70.072 -17.379 157.000
-69.679 -17.379 157.000
-69.286 -17.379 157.000
-68.893 -17.379 157.000
-68.501 -17.379 157.000
-68.108 -17.379 157.000
-67.715 -17.379 157.000
-67.322 -17.379 157.000
-66.929 -17.379 157.000
-66.536 -17.379 157.000
-66.144 -17.379 157.000
-65.751 -17.379 157.000
-65.358 -17.379 157.000
-64.965 -17.379 157.000
-64.572 -17.379 157.000
-64.179 -17.379 157.000
-63.786 -17.379 157.000
-63.394 -17.379 157.000
-63.001 -17.379 157.000
-62.608 -17.379 157.000
-62.215 -17.379 157.000
-62.216 -17.489 158.000
-61.821 -17.489 158.000
-61.425 -17.489 158.000
-61.030 -17.489 158.000
-60.635 -17.489 158.000
-60.239 -17.489 158.000
-60.223 -17.600 159.000
-59.825 -17.600 159.000
-59.801 -17.711 160.000
-59.400 -17.711 160.000
-59.369 -17.822 161.000
-58.966 -17.822 161.000
-58.563 -17.822 161.000
-58.160 -17.822 161.000
-57.757 -17.822 161.000
-57.354 -17.822 161.000
-57.305 -17.932 162.000
-56.900 -17.932 162.000
-56.495 -17.932 162.000
-56.089 -17.932 162.000
-55.684 -17.932 162.000
-55.279 -17.932 162.000
-54.873 -17.932 162.000
-54.468 -17.932 162.000
-54.062 -17.932 162.000
-53.657 -17.932 162.000
-53.581 -18.043 163.000
-53.173 -18.043 163.000
-52.765 -18.043 163.000
-52.357 -18.043 163.000
-51.949 -18.043 163.000
-51.541 -18.043 163.000
-51.133 -18.043 163.000
-50.725 -18.043 163.000
-50.626 -18.154 164.000
-50.216 -18.154 164.000
-49.806 -18.154 164.000
-49.395 -18.154 164.000
-48.985 -18.154 164.000
-48.575 -18.154 164.000
-48.458 -18.264 165.000
-48.045 -18.264 165.000
-47.632 -18.264 165.000
-47.219 -18.264 165.000
-47.090 -18.375 166.000
-46.675 -18.375 166.000
-46.259 -18.375 166.000
-45.844 -18.375 166.000
-45.702 -18.486 167.000
-45.284 -18.486 167.000
-44.867 -18.486 167.000
-44.449 -18.486 167.000
-44.031 -18.486 167.000
-43.613 -18.486 167.000
-43.195 -18.486 167.000
-42.777 -18.486 167.000
-42.359 -18.486 167.000
-41.941 -18.486 167.000
-41.772 -18.596 168.000
-41.352 -18.596 168.000
-40.931 -18.596 168.000
-40.511 -18.596 168.000
-40.807 -18.928 171.000
-40.379 -18.928 171.000
-39.951 -18.928 171.000
-39.523 -18.928 171.000
-39.552 -19.150 173.000
-39.120 -19.150 173.000
-38.687 -19.150 173.000
-38.254 -19.150 173.000
-37.821 -19.150 173.000
-37.604 -19.261 174.000
-37.169 -19.261 174.000
-36.733 -19.261 174.000
-36.298 -19.261 174.000
-35.863 -19.261 174.000
-35.427 -19.261 174.000
-34.992 -19.261 174.000
-34.556 -19.261 174.000
-34.121 -19.261 174.000
-33.686 -19.261 174.000
-33.441 -19.371 175.000
-33.003 -19.371 175.000
-32.566 -19.371 175.000
-32.128 -19.371 175.000
-31.871 -19.482 176.000
-31.431 -19.482 176.000
-30.990 -19.482 176.000
-30.550 -19.482 176.000
-30.109 -19.482 176.000
-29.669 -19.482 176.000
-29.395 -19.593 177.000
-28.952 -19.593 177.000
-28.670 -19.703 178.000
-28.225 -19.703 178.000
-27.779 -19.703 178.000
-27.334 -19.703 178.000
-27.039 -19.814 179.000
-26.592 -19.814 179.000
-26.144 -19.814 179.000
-25.696 -19.814 179.000
-25.248 -19.814 179.000
-24.800 -19.814 179.000
-24.352 -19.814 179.000
-23.904 -19.814 179.000
-23.587 -19.925 180.000
-23.137 -19.925 180.000
-22.687 -19.925 180.000
-22.236 -19.925 180.000
-21.786 -19.925 180.000
-21.335 -19.925 180.000
-20.885 -19.925 180.000
-20.435 -19.925 180.000
-19.984 -19.925 180.000
-19.534 -19.925 180.000
-19.295 -20.146 182.000
-18.840 -20.146 182.000
-18.385 -20.146 182.000
-17.929 -20.146 182.000
-17.570 -20.257 183.000
-17.112 -20.257 183.000
-16.654 -20.257 183.000
-16.196 -20.257 183.000
-15.824 -20.367 184.000
-15.364 -20.367 184.000
-14.903 -20.367 184.000
-14.443 -20.367 184.000
-14.059 -20.478 185.000
-13.596 -20.478 185.000
-13.204 -20.589 186.000
-12.738 -20.589 186.000
-12.339 -20.700 187.000
-11.871 -20.700 187.000
-11.403 -20.700 187.000
-10.935 -20.700 187.000
-10.467 -20.700 187.000
-9.999 -20.700 187.000
-9.582 -20.810 188.000
-9.112 -20.810 188.000
-8.642 -20.810 188.000
-8.171 -20.810 188.000
-7.742 -20.921 189.000
-7.269 -20.921 189.000
-6.832 -21.032 190.000
-6.356 -21.032 190.000
-5.912 -21.142 191.000
-5.434 -21.142 191.000
-4.956 -21.142 191.000
-4.478 -21.142 191.000
-4.000 -21.142 191.000
-3.522 -21.142 191.000
-3.060 -21.253 192.000
-2.580 -21.253 192.000
-2.110 -21.364 193.000
-1.628 -21.364 193.000
-1.145 -21.364 193.000
-0.662 -21.364 193.000
-0.179 -21.364 193.000
0.304 -21.364 193.000
0.787 -21.364 193.000
1.270 -21.364 193.000
1.780 -21.696 196.000
2.271 -21.696 196.000
2.761 -21.696 196.000
3.251 -21.696 196.000
3.742 -21.696 196.000
4.254 -21.806 197.000
4.747 -21.806 197.000
5.240 -21.806 197.000
5.733 -21.806 197.000
6.226 -21.806 197.000
6.719 -21.806 197.000
7.212 -21.806 197.000
7.704 -21.806 197.000
8.197 -21.806 197.000
8.690 -21.806 197.000
9.183 -21.806 197.000
9.676 -21.806 197.000
10.169 -21.806 197.000
10.662 -21.806 197.000
11.155 -21.806 197.000
11.648 -21.806 197.000
12.203 -21.917 198.000
12.698 -21.917 198.000
13.193 -21.917 198.000
13.689 -21.917 198.000
14.184 -21.917 198.000
14.680 -21.917 198.000
15.252 -22.028 199.000
15.750 -22.028 199.000
16.248 -22.028 199.000
16.746 -22.028 199.000
17.330 -22.139 200.000
17.831 -22.139 200.000
18.331 -22.139 200.000
18.831 -22.139 200.000
19.332 -22.139 200.000
19.832 -22.139 200.000
20.434 -22.249 201.000
20.937 -22.249 201.000
21.440 -22.249 201.000
21.943 -22.249 201.000
22.446 -22.249 201.000
22.949 -22.249 201.000
23.452 -22.249 201.000
23.955 -22.249 201.000
24.458 -22.249 201.000
24.961 -22.249 201.000
25.591 -22.360 202.000
26.096 -22.360 202.000
26.601 -22.360 202.000
27.107 -22.360 202.000
27.612 -22.360 202.000
28.118 -22.360 202.000
28.623 -22.360 202.000
29.129 -22.360 202.000
29.634 -22.360 202.000
30.140 -22.360 202.000
30.645 -22.360 202.000
31.150 -22.360 202.000
31.656 -22.360 202.000
32.161 -22.360 202.000
32.667 -22.360 202.000
33.172 -22.360 202.000
33.678 -22.360 202.000
34.183 -22.360 202.000
34.689 -22.360 202.000
35.194 -22.360 202.000
35.699 -22.360 202.000
36.205 -22.360 202.000
36.710 -22.360 202.000
37.216 -22.360 202.000
37.721 -22.360 202.000
38.227 -22.360 202.000
38.732 -22.360 202.000
39.238 -22.360 202.000
39.940 -22.471 203.000
40.448 -22.471 203.000
40.956 -22.471 203.000
41.464 -22.471 203.000
41.972 -22.471 203.000
42.480 -22.471 203.000
42.987 -22.471 203.000
43.495 -22.471 203.000
44.003 -22.471 203.000
44.511 -22.471 203.000
44.797 -22.360 202.000
45.303 -22.360 202.000
45.808 -22.360 202.000
46.314 -22.360 202.000
46.819 -22.360 202.000
47.325 -22.360 202.000
47.830 -22.360 202.000
48.336 -22.360 202.000
48.841 -22.360 202.000
49.346 -22.360 202.000
49.852 -22.360 202.000
50.357 -22.360 202.000
50.863 -22.360 202.000
51.368 -22.360 202.000
51.874 -22.360 202.000
52.379 -22.360 202.000
52.885 -22.360 202.000
53.390 -22.360 202.000
53.895 -22.360 202.000
54.401 -22.360 202.000
54.906 -22.360 202.000
55.412 -22.360 202.000
55.917 -22.360 202.000
56.423 -22.360 202.000
56.928 -22.360 202.000
57.434 -22.360 202.000
57.939 -22.360 202.000
58.444 -22.360 202.000
58.950 -22.360 202.000
59.455 -22.360 202.000
59.961 -22.360 202.000
60.466 -22.360 202.000
60.972 -22.360 202.000
61.477 -22.360 202.000
61.983 -22.360 202.000
62.488 -22.360 202.000
62.993 -22.360 202.000
63.499 -22.360 202.000
64.004 -22.360 202.000
64.510 -22.360 202.000
65.015 -22.360 202.000
65.521 -22.360 202.000
66.026 -22.360 202.000
66.532 -22.360 202.000
67.037 -22.360 202.000
67.543 -22.360 202.000
68.048 -22.360 202.000
68.553 -22.360 202.000
69.059 -22.360 202.000
69.564 -22.360 202.000
70.070 -22.360 202.000
70.575 -22.360 202.000
71.081 -22.360 202.000
71.586 -22.360 202.000
72.092 -22.360 202.000
72.597 -22.360 202.000
73.102 -22.360 202.000
73.608 -22.360 202.000
74.113 -22.360 202.000
74.619 -22.360 202.000
75.124 -22.360 202.000
75.630 -22.360 202.000
76.135 -22.360 202.000
76.641 -22.360 202.000
77.146 -22.360 202.000
77.651 -22.360 202.000
78.157 -22.360 202.000
78.662 -22.360 202.000
79.168 -22.360 202.000
79.673 -22.360 202.000
80.179 -22.360 202.000
80.684 -22.360 202.000
81.190 -22.360 202.000
81.695 -22.360 202.000
82.200 -22.360 202.000
82.706 -22.360 202.000
83.211 -22.360 202.000
83.717 -22.360 202.000
84.222 -22.360 202.000
85.147 -22.471 203.000
85.655 -22.471 203.000
86.163 -22.471 203.000
86.671 -22.471 203.000
87.179 -22.471 203.000
87.687 -22.471 203.000
88.195 -22.471 203.000
88.703 -22.471 203.000
89.211 -22.471 203.000
89.719 -22.471 203.000
90.671 -22.581 204.000
91.181 -22.581 204.000
91.692 -22.581 204.000
92.202 -22.581 204.000
92.713 -22.581 204.000
93.223 -22.581 204.000
93.734 -22.581 204.000
94.244 -22.581 204.000
94.755 -22.581 204.000
95.265 -22.581 204.000
95.775 -22.581 204.000
96.286 -22.581 204.000
96.322 -22.471 203.000
96.830 -22.471 203.000
97.338 -22.471 203.000
97.846 -22.471 203.000
98.354 -22.471 203.000
98.862 -22.471 203.000
99.859 -22.581 204.000
100.370 -22.581 204.000
100.880 -22.581 204.000
101.390 -22.581 204.000
101.901 -22.581 204.000
102.411 -22.581 204.000
102.922 -22.581 204.000
103.432 -22.581 204.000
103.943 -22.581 204.000
104.453 -22.581 204.000
104.964 -22.581 204.000
105.474 -22.581 204.000
105.984 -22.581 204.000
106.495 -22.581 204.000
107.005 -22.581 204.000
107.516 -22.581 204.000
108.556 -22.692 205.000
109.069 -22.692 205.000
109.582 -22.692 205.000
110.095 -22.692 205.000
110.068 -22.581 204.000
110.579 -22.581 204.000
111.089 -22.581 204.000
111.599 -22.581 204.000
112.110 -22.581 204.000
112.620 -22.581 204.000
113.131 -22.581 204.000
113.641 -22.581 204.000
114.152 -22.581 204.000
114.662 -22.581 204.000
115.173 -22.581 204.000
115.683 -22.581 204.000
116.193 -22.581 204.000
116.704 -22.581 204.000
117.789 -22.692 205.000
118.302 -22.692 205.000
118.815 -22.692 205.000
119.328 -22.692 205.000
120.425 -22.803 206.000
120.941 -22.803 206.000
121.456 -22.803 206.000
121.972 -22.803 206.000
122.487 -22.803 206.000
123.003 -22.803 206.000
123.518 -22.803 206.000
124.034 -22.803 206.000
124.549 -22.803 206.000
125.064 -22.803 206.000
125.580 -22.803 206.000
126.095 -22.803 206.000
125.996 -22.692 205.000
126.509 -22.692 205.000
127.022 -22.692 205.000
127.535 -22.692 205.000
128.673 -22.803 206.000
129.188 -22.803 206.000
129.704 -22.803 206.000
130.219 -22.803 206.000
130.734 -22.803 206.000
131.250 -22.803 206.000
131.765 -22.803 206.000
132.281 -22.803 206.000
133.441 -22.913 207.000
133.959 -22.913 207.000
134.477 -22.913 207.000
134.995 -22.913 207.000
135.513 -22.913 207.000
136.031 -22.913 207.000
136.549 -22.913 207.000
137.067 -22.913 207.000
136.920 -22.803 206.000
137.435 -22.803 206.000
137.951 -22.803 206.000
138.466 -22.803 206.000
139.656 -22.913 207.000
140.174 -22.913 207.000
141.372 -23.024 208.000
141.892 -23.024 208.000
143.098 -23.135 209.000
143.620 -23.135 209.000
145.523 -23.356 211.000
146.051 -23.356 211.000
146.579 -23.356 211.000
147.107 -23.356 211.000
147.635 -23.356 211.000
148.163 -23.356 211.000
148.691 -23.356 211.000
150.633 -23.578 213.000
151.166 -23.578 213.000
153.123 -23.799 215.000
153.661 -23.799 215.000
154.199 -23.799 215.000
154.737 -23.799 215.000
155.275 -23.799 215.000
155.813 -23.799 215.000
157.078 -23.910 216.000
157.619 -23.910 216.000
158.892 -24.020 217.000
159.434 -24.020 217.000
159.977 -24.020 217.000
160.520 -24.020 217.000
161.806 -24.131 218.000
162.351 -24.131 218.000
